ncols        146
nrows        32
xllcorner    630200
yllcorner    215100
cellsize     100.000000000000
127.26792144775390625 127.5651702880859375 125.37686920166015625 113.463531494140625 119.7427215576171875 107.1798095703125 99.95391845703125 100.2819976806640625 112.3659515380859375 119.25054931640625 117.77275848388671875 123.27259063720703125 116.35211944580078125 123.99761962890625 106.94719696044921875 100.4630584716796875 94.739166259765625 93.64659881591796875 92.69141387939453125 91.4253997802734375 90.9349822998046875 90.7165069580078125 90.99715423583984375 90.61492919921875 89.5315399169921875 90.30962371826171875 91.0969085693359375 91.1051483154296875 96.08039093017578125 92.51847076416015625 96.575531005859375 96.9632720947265625 97.535797119140625 91.35327911376953125 98.255126953125 107.7979736328125 113.1955413818359375 112.3515625 110.297088623046875 103.95953369140625 110.3168487548828125 113.61128997802734375 118.822265625 123.66887664794921875 125.75539398193359375 118.03014373779296875 108.53629302978515625 105.88085174560546875 110.74289703369140625 117.84320068359375 124.18556976318359375 126.001007080078125 128.8933258056640625 129.6100311279296875 125.11376953125 118.9368133544921875 114.92507171630859375 117.62792205810546875 119.70447540283203125 120.39638519287109375 122.335693359375 119.47536468505859375 116.64394378662109375 119.2482147216796875 114.99356842041015625 108.30458831787109375 116.1483154296875 116.208953857421875 113.85230255126953125 114.6163787841796875 113.797943115234375 109.5576171875 108.57816314697265625 108.52892303466796875 99.3387451171875 91.20298004150390625 89.70294952392578125 89.7263946533203125 89.27440643310546875 89.4431915283203125 91.62789154052734375 84.461639404296875 83.64902496337890625 83.16230010986328125 82.4839324951171875 84.2695465087890625 95.13663482666015625 92.1156463623046875 94.08301544189453125 85.41004180908203125 87.12708282470703125 85.78981781005859375 86.7337188720703125 87.6429290771484375 81.77288055419921875 80.9842987060546875 83.931732177734375 90.00164794921875 95.8447265625 99.6930084228515625 102.149932861328125 99.7584381103515625 99.36016082763671875 99.2017822265625 101.76753997802734375 102.67200469970703125 100.505340576171875 99.856353759765625 98.50405120849609375 97.23758697509765625 98.85631561279296875 97.0367889404296875 91.0244598388671875 94.2008209228515625 97.05434417724609375 92.90876007080078125 89.46659088134765625 91.889617919921875 94.304168701171875 99.0948333740234375 101.2583465576171875 103.85037994384765625 105.036895751953125 107.223602294921875 109.64977264404296875 110.67897796630859375 106.04901885986328125 102.164703369140625 104.646820068359375 101.77303314208984375 103.93219757080078125 106.942535400390625 107.953155517578125 109.99318695068359375 111.31119537353515625 107.57763671875 105.07505035400390625 103.209320068359375 103.3329925537109375 95.9652557373046875 100.85822296142578125 105.66883087158203125 105.9900360107421875 101.200897216796875 99.76267242431640625 101.36907958984375
134.312774658203125 130.4919281005859375 125.07225799560546875 122.21276092529296875 109.380828857421875 105.2165069580078125 113.8462371826171875 106.3072052001953125 112.44394683837890625 119.82448577880859375 128.5341949462890625 130.275360107421875 130.849334716796875 125.887298583984375 119.1988525390625 112.563201904296875 99.41729736328125 95.206298828125 93.35619354248046875 91.90765380859375 91.28668975830078125 90.89144134521484375 89.44071197509765625 89.6508636474609375 89.51747894287109375 88.575286865234375 89.85799407958984375 89.2286224365234375 90.13788604736328125 89.96237945556640625 94.15770721435546875 96.8056488037109375 98.66558074951171875 90.77046966552734375 97.79461669921875 107.78957366943359375 111.201873779296875 105.72321319580078125 101.93587493896484375 111.6173095703125 118.76837921142578125 121.09604644775390625 124.21671295166015625 121.462646484375 120.166534423828125 111.5256500244140625 107.1337738037109375 105.53498077392578125 112.31145477294921875 120.18111419677734375 125.65142822265625 127.4280242919921875 125.960540771484375 127.0417633056640625 121.57440948486328125 118.395782470703125 116.412506103515625 113.3998565673828125 114.860626220703125 117.67679595947265625 119.757293701171875 115.75839996337890625 114.23867034912109375 117.9951934814453125 115.40285491943359375 115.57492828369140625 116.4134368896484375 115.3685150146484375 113.9644775390625 109.17369842529296875 110.97068023681640625 109.77386474609375 102.4516143798828125 106.6872711181640625 105.81394195556640625 101.64003753662109375 91.7311248779296875 90.2745361328125 98.9761962890625 97.3341522216796875 97.06038665771484375 86.3271636962890625 83.40361785888671875 82.58099365234375 82.445343017578125 81.8442535400390625 81.667144775390625 81.2427825927734375 86.44210052490234375 83.2352447509765625 82.885223388671875 81.66857147216796875 82.05893707275390625 83.7191162109375 80.3598785400390625 80.6908721923828125 84.2049407958984375 92.0030517578125 94.50720977783203125 94.94765472412109375 100.95595550537109375 92.47503662109375 93.98700714111328125 94.7248992919921875 97.74056243896484375 102.01815032958984375 100.51667022705078125 97.249786376953125 95.98313140869140625 96.58234405517578125 96.9715576171875 96.88983154296875 93.5378875732421875 92.06623077392578125 95.2830657958984375 90.88713836669921875 91.20990753173828125 95.146484375 95.8269805908203125 97.19631195068359375 101.73165130615234375 102.47020721435546875 106.0379638671875 106.64484405517578125 110.24131011962890625 110.59566497802734375 107.551025390625 102.013519287109375 102.07448577880859375 101.05889129638671875 102.43486785888671875 104.6039886474609375 106.7076568603515625 108.67745208740234375 112.25899505615234375 111.2259521484375 108.2985992431640625 107.43035888671875 99.77496337890625 104.45793914794921875 100.970550537109375 109.29045867919921875 108.12631988525390625 101.72040557861328125 102.81012725830078125 105.67095184326171875
131.2178802490234375 122.59809112548828125 119.07112884521484375 114.97231292724609375 118.18675994873046875 120.9064483642578125 124.0373382568359375 120.4480438232421875 105.21114349365234375 122.40833282470703125 128.9736175537109375 133.20013427734375 119.2871246337890625 107.78839874267578125 104.93846893310546875 101.877593994140625 99.127593994140625 99.00395965576171875 94.95526123046875 93.417022705078125 93.06539154052734375 92.81050872802734375 90.17304229736328125 90.0088348388671875 89.9626922607421875 90.34247589111328125 89.70600128173828125 89.611480712890625 89.16648101806640625 88.81885528564453125 88.3026885986328125 98.24092864990234375 92.58824920654296875 91.86058807373046875 99.1136474609375 104.83344268798828125 103.8636474609375 99.3103790283203125 109.77198028564453125 116.135162353515625 117.8056488037109375 118.8944091796875 123.646728515625 118.0977935791015625 116.08321380615234375 117.01529693603515625 101.51398468017578125 105.3643798828125 111.5581817626953125 115.91941070556640625 121.76996612548828125 123.648651123046875 122.0842742919921875 126.4596099853515625 125.29161834716796875 123.31014251708984375 123.35010528564453125 117.4750823974609375 112.5423583984375 112.5079803466796875 117.32265472412109375 115.7144927978515625 112.012176513671875 114.86586761474609375 112.85445404052734375 112.5664520263671875 112.43004608154296875 111.191680908203125 109.029327392578125 107.4952545166015625 107.06513214111328125 105.99654388427734375 102.80568695068359375 102.305145263671875 99.0978546142578125 95.2332611083984375 89.22440338134765625 100.21521759033203125 104.65735626220703125 102.2925262451171875 94.98509979248046875 94.196044921875 86.94048309326171875 83.05059051513671875 84.5103607177734375 82.50884246826171875 84.8835296630859375 84.3421783447265625 82.33019256591796875 80.7572021484375 80.70172882080078125 80.4143524169921875 81.44516754150390625 81.9962615966796875 80.7578125 80.2198486328125 85.46308135986328125 90.07611083984375 89.64678955078125 88.530029296875 89.49131011962890625 93.45590972900390625 96.60169219970703125 99.88518524169921875 100.1557464599609375 102.38153076171875 99.686248779296875 96.5036163330078125 94.67133331298828125 96.77437591552734375 96.06894683837890625 95.35400390625 95.28491973876953125 89.00399017333984375 92.26563262939453125 88.71633148193359375 91.62905120849609375 95.4044036865234375 97.4900054931640625 98.1037139892578125 102.64353179931640625 102.776611328125 105.6219329833984375 107.00777435302734375 109.91277313232421875 104.85280609130859375 105.35854339599609375 101.67830657958984375 100.32314300537109375 100.783355712890625 99.97576904296875 101.9019927978515625 104.49875640869140625 105.9956512451171875 109.9149627685546875 112.8450927734375 111.5264739990234375 103.44506072998046875 101.31644439697265625 108.32154083251953125 104.11542510986328125 107.1828765869140625 108.46709442138671875 100.8191680908203125 106.03792572021484375 107.99957275390625
137.873382568359375 135.4098358154296875 127.7597808837890625 127.07933807373046875 117.64176177978515625 128.8155059814453125 127.47894287109375 115.9442901611328125 117.9736785888671875 116.4744110107421875 122.4976043701171875 132.619171142578125 128.1742095947265625 122.2711639404296875 115.59618377685546875 105.37705230712890625 117.41008758544921875 114.0988311767578125 96.8059234619140625 104.7799224853515625 111.01491546630859375 106.571502685546875 119.98900604248046875 98.2680816650390625 90.41309356689453125 90.11357879638671875 89.87671661376953125 89.85445404052734375 89.25647735595703125 88.82479095458984375 88.94808197021484375 87.03037261962890625 88.4269256591796875 88.5976715087890625 92.81522369384765625 100.25543212890625 95.6606903076171875 106.5782470703125 111.780303955078125 111.60710906982421875 114.86881256103515625 119.11222076416015625 121.5713958740234375 116.63813018798828125 110.82108306884765625 110.63787841796875 100.82171630859375 107.27736663818359375 114.88596343994140625 121.02037811279296875 122.546722412109375 116.48003387451171875 118.93512725830078125 124.32740020751953125 127.47371673583984375 127.006195068359375 124.949737548828125 120.03423309326171875 118.392425537109375 109.861785888671875 110.40236663818359375 110.96923065185546875 109.929840087890625 113.34688568115234375 111.60381317138671875 107.120819091796875 105.24249267578125 104.5522003173828125 101.379974365234375 99.4579315185546875 98.232757568359375 96.8157806396484375 94.5307159423828125 93.90245819091796875 92.40508270263671875 90.73484039306640625 94.84842681884765625 103.6830291748046875 108.986236572265625 104.3925933837890625 94.45282745361328125 97.58925628662109375 91.44732666015625 85.764068603515625 87.86377716064453125 83.9872894287109375 86.253143310546875 89.96547698974609375 93.25943756103515625 87.88579559326171875 80.860443115234375 80.60866546630859375 80.3397369384765625 79.99237823486328125 81.6295013427734375 79.73499298095703125 83.38824462890625 85.1255035400390625 85.521881103515625 89.80028533935546875 93.14557647705078125 97.33426666259765625 100.11859130859375 102.3364715576171875 102.245819091796875 102.55455780029296875 99.13384246826171875 95.98675537109375 91.73191070556640625 94.77423858642578125 93.29540252685546875 94.255950927734375 92.562896728515625 88.10982513427734375 88.6675872802734375 86.43238067626953125 89.99723052978515625 92.78276824951171875 94.0035400390625 97.86383056640625 101.039215087890625 102.11687469482421875 103.70365142822265625 106.03852081298828125 109.35355377197265625 106.35715484619140625 101.70203399658203125 100.14727020263671875 98.88677215576171875 99.69598388671875 101.406463623046875 103.07552337646484375 103.99929046630859375 105.5798187255859375 109.00249481201171875 112.54465484619140625 108.42212677001953125 109.2200469970703125 107.85771942138671875 110.337493896484375 112.2210845947265625 106.0339202880859375 106.415069580078125 104.17641448974609375 108.14665985107421875 110.6934661865234375
140.18450927734375 138.6341705322265625 134.0517578125 126.49054718017578125 123.93308258056640625 131.8383941650390625 123.95528411865234375 128.7540740966796875 127.16454315185546875 119.5765228271484375 124.2299041748046875 133.441680908203125 133.915802001953125 129.2591552734375 110.40618133544921875 119.783905029296875 119.66004180908203125 108.61602020263671875 98.47615814208984375 106.95369720458984375 118.15787506103515625 117.3522796630859375 116.2868804931640625 114.67955780029296875 94.478240966796875 90.88970184326171875 90.19547271728515625 89.281585693359375 89.4654998779296875 88.88057708740234375 88.5482635498046875 88.191650390625 87.6979522705078125 88.17935943603515625 88.43711090087890625 91.5224151611328125 101.90975189208984375 107.7694091796875 108.1788330078125 110.32532501220703125 112.49468994140625 116.37519073486328125 119.854461669921875 120.1860198974609375 117.5753326416015625 103.91204833984375 99.37656402587890625 108.811279296875 114.9903564453125 122.04129791259765625 118.81128692626953125 117.4645843505859375 122.332305908203125 126.4269256591796875 127.69799041748046875 127.90760040283203125 127.524688720703125 124.06000518798828125 118.50548553466796875 112.023406982421875 109.14398193359375 107.672637939453125 107.32952880859375 104.833160400390625 104.87128448486328125 103.16164398193359375 102.14394378662109375 101.515472412109375 101.6392974853515625 101.32649993896484375 105.0272979736328125 105.5940093994140625 105.05239105224609375 97.1887054443359375 94.67884063720703125 102.28705596923828125 96.5896453857421875 106.34075164794921875 110.1245880126953125 103.38268280029296875 98.2515869140625 101.55513763427734375 95.7590179443359375 87.61528778076171875 93.81473541259765625 86.32541656494140625 88.87831878662109375 95.51825714111328125 94.274017333984375 94.127349853515625 82.195556640625 80.58774566650390625 80.342376708984375 79.849822998046875 80.0010833740234375 79.48162841796875 81.760009765625 86.253448486328125 95.300048828125 98.90608978271484375 94.60347747802734375 97.12847137451171875 100.21839141845703125 102.0950927734375 101.457427978515625 101.63321685791015625 99.19850921630859375 93.26049041748046875 91.28802490234375 92.6516876220703125 90.90093231201171875 90.858245849609375 89.2901611328125 86.62248992919921875 86.4825897216796875 90.4452667236328125 89.61717987060546875 95.819488525390625 98.06977081298828125 100.3414459228515625 103.35231781005859375 103.32201385498046875 103.939117431640625 106.21764373779296875 107.6092529296875 105.20749664306640625 101.83087921142578125 101.07598114013671875 97.91613006591796875 101.2906951904296875 102.92858123779296875 104.84906768798828125 106.2722930908203125 107.72969818115234375 107.40509796142578125 111.33718109130859375 112.89859771728515625 112.4765777587890625 110.11978912353515625 110.90134429931640625 113.95751953125 109.95135498046875 110.23394775390625 112.4307098388671875 110.4742279052734375 112.2808380126953125
138.60162353515625 134.8694610595703125 134.8898773193359375 132.0336456298828125 128.2016448974609375 135.2054443359375 135.6006927490234375 130.3778533935546875 124.47873687744140625 120.9388580322265625 128.9225616455078125 133.19183349609375 120.44561767578125 112.84929656982421875 120.7156219482421875 125.93665313720703125 117.461944580078125 102.22670745849609375 108.73688507080078125 113.5483551025390625 120.3365478515625 122.9998931884765625 118.73455810546875 109.33625030517578125 103.29151153564453125 92.8039398193359375 90.7230377197265625 89.6697845458984375 88.88680267333984375 88.98166656494140625 88.5976715087890625 88.21816253662109375 87.67580413818359375 87.72556304931640625 88.2582550048828125 99.83356475830078125 101.54291534423828125 105.97467041015625 105.0899658203125 104.45088958740234375 113.0219573974609375 116.49742889404296875 115.45264434814453125 114.3362579345703125 112.6074676513671875 104.576934814453125 98.356292724609375 107.2668304443359375 115.55255126953125 120.8734893798828125 114.8524169921875 113.41869354248046875 118.90508270263671875 123.669342041015625 123.28646087646484375 124.30687713623046875 127.1010284423828125 124.5671844482421875 118.65322113037109375 112.877410888671875 113.6816864013671875 112.13150787353515625 110.56781005859375 107.63842010498046875 105.347747802734375 108.84522247314453125 108.62310791015625 109.7663421630859375 108.00970458984375 112.899383544921875 112.6498565673828125 114.3798065185546875 108.42243194580078125 98.176177978515625 100.61734771728515625 106.94422149658203125 107.4166717529296875 105.31192779541015625 110.414337158203125 100.76625823974609375 104.7129364013671875 98.96656036376953125 93.41759490966796875 94.66704559326171875 94.65526580810546875 87.92236328125 94.85536956787109375 99.5477447509765625 97.1460418701171875 95.2781219482421875 89.9332733154296875 83.5739288330078125 80.38065338134765625 79.55803680419921875 79.89304351806640625 79.4602203369140625 79.79274749755859375 85.7176513671875 93.113677978515625 95.37801361083984375 98.4607391357421875 100.17826080322265625 100.3632354736328125 101.33975982666015625 99.9949188232421875 96.44605255126953125 96.980255126953125 91.83831787109375 91.55884552001953125 92.3696441650390625 93.75272369384765625 87.27972412109375 86.01995086669921875 85.51975250244140625 89.87195587158203125 94.5866851806640625 96.21132659912109375 94.0704345703125 99.48575592041015625 99.36273193359375 102.253692626953125 103.2062530517578125 106.95691680908203125 109.217742919921875 106.9904632568359375 100.129425048828125 100.5869140625 96.7824249267578125 98.8764495849609375 103.43717193603515625 105.89579010009765625 106.72049713134765625 109.06735992431640625 110.50911712646484375 110.64861297607421875 112.2313232421875 114.45401763916015625 114.64189910888671875 114.60434722900390625 114.850341796875 114.80921173095703125 113.2523040771484375 112.07785797119140625 113.13709259033203125 114.04914093017578125 115.192169189453125
138.0734405517578125 134.356781005859375 131.5060577392578125 132.33624267578125 128.152099609375 132.9718475341796875 135.484039306640625 136.0474090576171875 127.71910858154296875 133.4351959228515625 133.96173095703125 127.28572845458984375 119.2523345947265625 122.010955810546875 128.8910675048828125 113.7027587890625 111.0125579833984375 112.9824981689453125 120.8594207763671875 107.13330841064453125 120.18996429443359375 115.02227783203125 107.10272216796875 114.1601715087890625 108.32643890380859375 105.9604644775390625 102.5505828857421875 93.24950408935546875 89.56772613525390625 88.64170074462890625 88.18912506103515625 88.13288116455078125 87.68634033203125 87.64336395263671875 87.613189697265625 98.4611358642578125 99.1816864013671875 104.93474578857421875 101.3441009521484375 106.56192779541015625 107.90105438232421875 111.67942047119140625 112.94132232666015625 110.6447601318359375 102.3902740478515625 98.2874298095703125 101.31644439697265625 108.7598419189453125 115.4775238037109375 114.75408935546875 108.63658905029296875 111.87215423583984375 118.55493927001953125 120.63004302978515625 115.44550323486328125 121.160552978515625 125.4160003662109375 121.5996856689453125 117.41529083251953125 117.150360107421875 116.01308441162109375 118.954620361328125 116.44173431396484375 110.52938079833984375 115.47896575927734375 113.18875885009765625 109.90004730224609375 116.56737518310546875 114.740966796875 116.89990997314453125 120.578857421875 112.643157958984375 102.997314453125 102.8737640380859375 107.37238311767578125 109.9461669921875 115.25342559814453125 111.32532501220703125 105.0814971923828125 106.825408935546875 102.24139404296875 101.5296173095703125 96.1743316650390625 97.89780426025390625 88.6991424560546875 93.28076934814453125 96.77758026123046875 100.84320068359375 92.9997406005859375 90.7833404541015625 88.15531158447265625 100.1130523681640625 106.068878173828125 102.05926513671875 98.82518768310546875 79.09674835205078125 78.67189788818359375 81.637298583984375 90.56458282470703125 97.1319427490234375 100.27921295166015625 100.55103302001953125 97.5697479248046875 100.2127685546875 98.1700897216796875 94.473419189453125 94.17736053466796875 90.21144866943359375 89.5159149169921875 90.02811431884765625 90.21530914306640625 85.1803436279296875 85.0244293212890625 87.89190673828125 88.47774505615234375 93.88066864013671875 97.4800262451171875 97.6157379150390625 100.8185577392578125 104.12418365478515625 104.8778533935546875 104.5231475830078125 105.70941162109375 106.5918121337890625 106.17819976806640625 103.76172637939453125 95.3739013671875 95.82250213623046875 98.36621856689453125 102.84942626953125 107.078521728515625 108.11128997802734375 110.72447967529296875 110.7608642578125 111.45232391357421875 113.30554962158203125 114.90616607666015625 115.84943389892578125 115.4228973388671875 115.19427490234375 113.860626220703125 112.56745147705078125 110.02187347412109375 110.2593841552734375 111.91291046142578125 113.79511260986328125
137.3831024169921875 135.9885101318359375 131.89752197265625 129.91510009765625 129.21240234375 130.3203125 132.1102294921875 136.9936370849609375 136.798797607421875 137.4790496826171875 131.3461761474609375 121.45069122314453125 126.33789825439453125 125.22722625732421875 129.3465728759765625 126.43381500244140625 127.77138519287109375 116.62674713134765625 124.94484710693359375 111.323089599609375 122.26926422119140625 117.47858428955078125 123.65639495849609375 114.577423095703125 112.889404296875 114.816131591796875 105.24318695068359375 107.1947174072265625 95.03524017333984375 89.2555084228515625 88.18035125732421875 88.10816192626953125 87.46974945068359375 87.6423797607421875 87.52593231201171875 89.038421630859375 98.0599822998046875 103.4528961181640625 97.78676605224609375 100.24727630615234375 103.08470916748046875 108.56485748291015625 112.20803070068359375 112.68087005615234375 106.63775634765625 96.06165313720703125 105.426055908203125 113.20372772216796875 116.0500335693359375 108.1387176513671875 104.751434326171875 113.49210357666015625 118.97235107421875 114.4886322021484375 116.78025054931640625 119.2559814453125 123.748138427734375 122.65860748291015625 122.37270355224609375 120.2276763916015625 120.02059173583984375 118.52346038818359375 114.9818572998046875 113.48322296142578125 118.562347412109375 118.2044219970703125 114.45328521728515625 118.8383026123046875 123.47918701171875 123.1818695068359375 118.37952423095703125 111.997955322265625 106.02790069580078125 109.2598114013671875 111.33957672119140625 110.1213531494140625 116.93865203857421875 111.418212890625 108.09490203857421875 112.5996551513671875 106.7268218994140625 107.38320159912109375 103.61602020263671875 92.73514556884765625 96.1043701171875 95.962158203125 101.131805419921875 100.91443634033203125 99.97601318359375 92.45645904541015625 92.0870361328125 91.57048797607421875 104.09027862548828125 101.9946746826171875 78.63593292236328125 78.3402862548828125 78.63634490966796875 82.091705322265625 89.63889312744140625 93.34528350830078125 95.20429229736328125 93.9405059814453125 96.0631561279296875 99.02980804443359375 96.62287139892578125 91.06536865234375 92.11865234375 88.50446319580078125 88.17316436767578125 89.47612762451171875 86.5569610595703125 83.8082275390625 85.77036285400390625 92.97801971435546875 95.82982635498046875 93.59102630615234375 95.961395263671875 100.40999603271484375 102.27337646484375 103.5743408203125 102.0793304443359375 103.3228607177734375 104.46167755126953125 107.30623626708984375 106.8125762939453125 101.360931396484375 93.631500244140625 96.85436248779296875 99.68134307861328125 101.949493408203125 104.66289520263671875 109.5940093994140625 110.43315887451171875 111.66080474853515625 113.6691741943359375 112.00262451171875 113.18730926513671875 115.49724578857421875 112.75689697265625 112.8285369873046875 111.62750244140625 110.49033355712890625 109.2752227783203125 109.32498931884765625 110.5943450927734375 112.22452545166015625
133.9808807373046875 132.3709869384765625 132.000640869140625 125.51090240478515625 125.1482391357421875 127.0964202880859375 130.1639251708984375 135.3621673583984375 134.02191162109375 134.1331024169921875 127.01030731201171875 132.783782958984375 136.737701416015625 135.0514678955078125 128.5502777099609375 133.1349334716796875 133.8657073974609375 123.17804718017578125 128.0096893310546875 116.4965362548828125 127.0688018798828125 127.00376129150390625 129.70465087890625 123.02519989013671875 115.04467010498046875 118.2685394287109375 113.901824951171875 114.96686553955078125 110.2017822265625 98.51697540283203125 91.22266387939453125 88.57649993896484375 87.68163299560546875 87.1688995361328125 87.37685394287109375 87.40775299072265625 93.13423919677734375 97.19947052001953125 92.8929443359375 101.35883331298828125 105.4007568359375 107.17121124267578125 108.68041229248046875 109.59473419189453125 100.43672943115234375 95.51335906982421875 103.60552215576171875 112.0088958740234375 113.42053985595703125 103.2738037109375 107.83644866943359375 115.91979217529296875 115.475341796875 107.81342315673828125 113.92667388916015625 119.72956085205078125 123.45963287353515625 120.1380615234375 120.33406829833984375 117.62899017333984375 117.7352752685546875 117.87229156494140625 116.97906494140625 117.43408203125 117.43755340576171875 117.5868682861328125 118.4645843505859375 120.1193695068359375 122.97165679931640625 122.21750640869140625 117.0321044921875 109.94586181640625 111.60079193115234375 115.97296142578125 117.610931396484375 114.81639862060546875 116.1235809326171875 114.87915802001953125 113.55759429931640625 114.78279876708984375 113.28472137451171875 110.26853179931640625 100.93044281005859375 97.0051422119140625 94.9168853759765625 100.62625885009765625 102.2486419677734375 102.62836456298828125 96.967742919921875 93.3932037353515625 96.81438446044921875 95.40340423583984375 100.97591400146484375 98.23126983642578125 78.06851959228515625 78.40549468994140625 78.7773284912109375 84.2218475341796875 87.54345703125 89.80998992919921875 91.44029998779296875 95.12237548828125 96.10767364501953125 96.25457763671875 96.00218963623046875 94.20041656494140625 89.443023681640625 88.8209075927734375 86.207183837890625 85.7113189697265625 84.62020111083984375 85.43288421630859375 87.1796722412109375 91.5787353515625 95.921905517578125 97.01493072509765625 98.9770965576171875 102.25980377197265625 100.69036865234375 101.77135467529296875 102.085113525390625 99.646881103515625 101.96833038330078125 103.10794830322265625 103.41442108154296875 97.8631744384765625 93.86913299560546875 98.23416900634765625 102.7589569091796875 104.45070648193359375 107.766510009765625 109.87125396728515625 110.5370330810546875 111.08335113525390625 109.8932037353515625 109.85846710205078125 111.3072967529296875 110.883514404296875 106.84638214111328125 108.05068206787109375 106.5222320556640625 106.74932098388671875 105.99153900146484375 108.92089080810546875 112.07059478759765625 112.47943115234375
130.621185302734375 127.427581787109375 128.3437347412109375 128.856536865234375 123.84780120849609375 127.51166534423828125 131.3812103271484375 134.9035186767578125 132.398590087890625 130.866729736328125 129.93017578125 134.386993408203125 137.236328125 138.0766143798828125 134.7462921142578125 133.2103118896484375 133.1620025634765625 134.092071533203125 128.098114013671875 125.3753509521484375 129.958892822265625 128.8845977783203125 129.0994720458984375 121.9970703125 113.79132080078125 107.6588134765625 108.86937713623046875 109.7555999755859375 105.27306365966796875 94.46218109130859375 92.44972991943359375 89.71085357666015625 87.615020751953125 87.34058380126953125 86.8134002685546875 87.0620880126953125 87.800079345703125 92.493804931640625 94.365264892578125 95.87995147705078125 103.0788116455078125 102.8525390625 104.13695526123046875 106.2290496826171875 95.1520233154296875 95.80190277099609375 102.97661590576171875 109.26714324951171875 112.3816070556640625 100.9543609619140625 110.07761383056640625 112.93840789794921875 106.48073577880859375 109.13220977783203125 115.67162322998046875 122.4405364990234375 122.7161407470703125 117.76807403564453125 115.680633544921875 117.64154052734375 112.12066650390625 114.26511383056640625 113.79044342041015625 115.76845550537109375 113.2592010498046875 112.7450408935546875 113.94366455078125 120.24564361572265625 124.03589630126953125 121.62822723388671875 118.18051910400390625 114.41014862060546875 117.75402069091796875 119.97890472412109375 123.00533294677734375 121.26071929931640625 118.35883331298828125 119.52870941162109375 117.66382598876953125 116.75302886962890625 112.57254791259765625 108.12996673583984375 96.2359466552734375 103.26995849609375 97.64678192138671875 103.2179412841796875 103.9537506103515625 104.26738739013671875 97.8885955810546875 100.32682037353515625 99.06561279296875 96.74463653564453125 94.71019744873046875 91.95343780517578125 86.1205596923828125 78.0048370361328125 78.5448455810546875 84.76773834228515625 87.02771759033203125 91.8706817626953125 94.1687774658203125 94.3562164306640625 94.90326690673828125 93.952117919921875 94.25482940673828125 92.9124298095703125 86.6956024169921875 88.951263427734375 82.6037750244140625 82.10988616943359375 87.29865264892578125 91.1795196533203125 93.50460052490234375 92.641845703125 89.19124603271484375 95.31395721435546875 96.92911529541015625 100.8377685546875 99.405059814453125 101.3451995849609375 103.9625091552734375 100.29781341552734375 97.2392730712890625 100.33843994140625 97.95586395263671875 91.99114990234375 94.12343597412109375 98.4430999755859375 102.404510498046875 106.03504180908203125 106.73412322998046875 107.59574127197265625 107.29079437255859375 107.64252471923828125 108.38384246826171875 108.65558624267578125 109.31487274169921875 109.96826171875 106.857818603515625 104.61060333251953125 104.2344970703125 104.46575164794921875 109.130218505859375 111.282958984375 113.3019866943359375 114.6689453125
124.1371002197265625 124.603851318359375 128.7196197509765625 127.37702178955078125 121.49185943603515625 125.50119781494140625 131.7843170166015625 132.78399658203125 131.6146697998046875 126.7636871337890625 129.808746337890625 133.6927947998046875 136.026641845703125 137.161529541015625 134.792236328125 130.1536712646484375 128.2659454345703125 130.8152313232421875 132.133087158203125 130.6614227294921875 131.0341796875 126.07752227783203125 128.0651092529296875 115.63086700439453125 118.70722198486328125 117.06459808349609375 111.64621734619140625 98.764862060546875 96.03939056396484375 100.36406707763671875 100.78566741943359375 90.4054107666015625 88.08733367919921875 87.0972900390625 87.14476776123046875 86.6371002197265625 86.87718963623046875 87.78753662109375 92.32781982421875 94.208221435546875 99.353607177734375 100.8225250244140625 101.8084716796875 102.628265380859375 92.91547393798828125 95.59244537353515625 104.2004547119140625 112.150970458984375 108.34148406982421875 98.57695770263671875 108.2445220947265625 104.48282623291015625 103.99291229248046875 112.50995635986328125 117.3108367919921875 124.0119781494140625 121.8151397705078125 117.83417510986328125 113.26113128662109375 114.91587066650390625 113.70619964599609375 108.10926055908203125 110.19199371337890625 111.55014801025390625 111.15241241455078125 109.9873809814453125 116.986541748046875 122.03290557861328125 125.98046875 123.96973419189453125 120.527801513671875 118.531707763671875 119.81911468505859375 122.434661865234375 124.7594146728515625 125.0114898681640625 121.63568115234375 119.28948974609375 112.70870208740234375 113.38397979736328125 109.2755889892578125 102.5657501220703125 100.6471099853515625 107.9665679931640625 104.7878875732421875 105.5533294677734375 105.5356597900390625 104.50565338134765625 101.86065673828125 99.1224365234375 95.743499755859375 91.11933135986328125 92.61672210693359375 89.332183837890625 78.37054443359375 77.8508148193359375 77.9308929443359375 81.61993408203125 86.28159332275390625 89.39180755615234375 90.32056427001953125 91.6166534423828125 92.85758209228515625 88.23111724853515625 92.47949981689453125 93.70821380615234375 87.13097381591796875 86.71642303466796875 80.458831787109375 82.7992401123046875 84.27466583251953125 89.7359771728515625 91.98728179931640625 93.99147796630859375 96.91089630126953125 96.72800445556640625 98.72020721435546875 98.5042572021484375 100.34100341796875 104.74170684814453125 104.755218505859375 104.9402618408203125 98.994873046875 94.8505706787109375 95.3396453857421875 92.23256683349609375 95.2152557373046875 97.6544036865234375 100.97063446044921875 103.2763824462890625 104.4225006103515625 104.74774932861328125 106.8154296875 106.05628204345703125 106.6934661865234375 108.18123626708984375 107.875 108.09362030029296875 104.31038665771484375 102.9682159423828125 104.44152069091796875 104.55612945556640625 108.3708648681640625 112.1112213134765625 113.822357177734375 112.6851654052734375
122.455810546875 126.24451446533203125 127.86762237548828125 122.20783233642578125 121.27455902099609375 128.519317626953125 131.2655792236328125 130.768463134765625 130.204254150390625 128.0130157470703125 125.29979705810546875 130.467193603515625 133.555694580078125 135.748291015625 132.9239959716796875 130.2368316650390625 126.5995635986328125 126.58824920654296875 130.434478759765625 131.843597412109375 128.249969482421875 124.6730499267578125 128.2857666015625 124.42613983154296875 122.069915771484375 114.84456634521484375 102.13018798828125 105.60709381103515625 112.81992340087890625 102.67948150634765625 106.754638671875 97.27471923828125 90.6403656005859375 86.96103668212890625 86.80974578857421875 86.564727783203125 86.7683563232421875 86.801544189453125 88.17803955078125 92.6218719482421875 94.566192626953125 96.13939666748046875 99.1755218505859375 98.35665130615234375 90.20135498046875 100.800537109375 107.41817474365234375 110.86843109130859375 102.43041229248046875 95.95197296142578125 101.40196990966796875 101.01271820068359375 108.38690185546875 114.60955047607421875 120.59332275390625 123.69663238525390625 118.542205810546875 117.289154052734375 114.76458740234375 110.5431976318359375 106.786285400390625 103.66584014892578125 104.678192138671875 106.39305877685546875 104.0128631591796875 113.06292724609375 118.15038299560546875 122.92487335205078125 123.96410369873046875 119.66196441650390625 119.8671722412109375 114.4176025390625 117.16904449462890625 120.3395538330078125 120.83586883544921875 123.42179107666015625 121.17488861083984375 116.77735137939453125 110.88741302490234375 108.15612030029296875 103.5449676513671875 105.44580078125 103.36456298828125 110.58167266845703125 107.92133331298828125 107.50994873046875 103.8936614990234375 99.98874664306640625 97.50319671630859375 96.53607177734375 94.69547271728515625 88.114410400390625 87.1797332763671875 83.0932464599609375 79.88222503662109375 80.63641357421875 77.47586822509765625 77.6192626953125 83.067169189453125 84.7733306884765625 87.693115234375 90.4288482666015625 90.96645355224609375 85.44388580322265625 90.94721221923828125 89.88547515869140625 84.0971221923828125 81.148345947265625 81.15967559814453125 86.27353668212890625 88.81595611572265625 86.30377197265625 87.498870849609375 88.200958251953125 94.50862884521484375 97.8106842041015625 96.7527008056640625 101.16414642333984375 103.3460540771484375 108.36191558837890625 109.0646209716796875 106.860260009765625 102.2002105712890625 95.05306243896484375 92.53824615478515625 90.9103546142578125 92.88763427734375 96.45191192626953125 99.22259521484375 101.29228973388671875 102.19769287109375 105.61211395263671875 105.34944915771484375 103.8219451904296875 104.8800811767578125 104.798126220703125 105.668212890625 106.343170166015625 104.77249908447265625 101.820587158203125 100.81267547607421875 102.67193603515625 105.77797698974609375 107.69042205810546875 112.5617523193359375 108.0129547119140625
116.67401885986328125 120.44527435302734375 124.1228485107421875 119.2142486572265625 122.7993927001953125 127.43331146240234375 128.630645751953125 127.4747467041015625 126.3480377197265625 125.87067413330078125 123.02435302734375 128.4407196044921875 130.2665252685546875 132.328369140625 128.6322174072265625 125.98571014404296875 128.0974578857421875 123.16025543212890625 126.82045745849609375 129.20623779296875 128.6621551513671875 123.5558013916015625 127.0825347900390625 125.95035552978515625 116.3299102783203125 114.97782135009765625 109.779296875 107.92809295654296875 115.97187042236328125 105.860504150390625 112.50006866455078125 104.7676239013671875 96.89411163330078125 87.9576416015625 86.59033203125 86.3794097900390625 86.58650970458984375 86.5854644775390625 86.57419586181640625 89.502410888671875 90.33658599853515625 94.9160003662109375 96.133087158203125 90.39295196533203125 92.77591705322265625 98.9449005126953125 104.0181427001953125 107.7449951171875 98.33901214599609375 94.29924774169921875 100.8480072021484375 106.8023529052734375 112.54376983642578125 116.44122314453125 114.7703094482421875 119.65595245361328125 112.55669403076171875 114.69867706298828125 114.82315826416015625 115.681854248046875 114.850372314453125 109.93741607666015625 101.8082427978515625 101.12461090087890625 105.51683807373046875 108.597564697265625 114.01850128173828125 118.67961883544921875 120.62845611572265625 111.75586700439453125 115.108062744140625 110.93691253662109375 112.7660980224609375 113.650390625 115.8117523193359375 122.51212310791015625 121.7022857666015625 117.6354827880859375 116.2777252197265625 115.33567047119140625 110.77501678466796875 111.43598175048828125 109.11101531982421875 111.9934844970703125 109.304412841796875 102.8688507080078125 96.62114715576171875 99.31676483154296875 93.4902191162109375 88.7343902587890625 88.8590240478515625 84.40570068359375 84.295166015625 85.1153717041015625 85.10790252685546875 80.7554168701171875 82.4347381591796875 77.57300567626953125 80.42743682861328125 85.504241943359375 89.8367462158203125 90.7320404052734375 89.37163543701171875 82.215362548828125 84.3607635498046875 81.0802001953125 79.7529449462890625 80.4599151611328125 83.3225860595703125 84.7111663818359375 89.4844512939453125 89.51399993896484375 93.77144622802734375 92.68051910400390625 94.57762908935546875 95.07952880859375 98.255523681640625 98.683868408203125 105.0485992431640625 109.67668914794921875 108.27367401123046875 103.11151885986328125 98.8542633056640625 95.4100341796875 91.9135894775390625 92.1378326416015625 95.37853240966796875 100.60472869873046875 101.99839019775390625 105.59209442138671875 107.58547210693359375 104.8815765380859375 106.52063751220703125 102.72634124755859375 101.3531494140625 102.427734375 100.445648193359375 103.2787628173828125 100.74137115478515625 98.456939697265625 99.96477508544921875 106.1392822265625 108.8857269287109375 110.4274749755859375 106.69156646728515625 105.8122406005859375
113.59139251708984375 115.82413482666015625 120.08042144775390625 116.45772552490234375 123.382781982421875 124.26682281494140625 125.19435882568359375 124.722686767578125 119.64311981201171875 122.169647216796875 121.06292724609375 125.4200439453125 127.4530487060546875 128.0616302490234375 126.959197998046875 123.2416229248046875 126.24725341796875 120.92108917236328125 121.54962158203125 123.98065948486328125 123.0251007080078125 121.6104888916015625 124.77590179443359375 126.89360809326171875 118.0448150634765625 123.300506591796875 114.44327545166015625 116.8257598876953125 119.58507537841796875 111.33893585205078125 116.64656829833984375 108.47489166259765625 106.2184600830078125 89.181304931640625 86.52248382568359375 86.0715789794921875 86.45082855224609375 86.691314697265625 86.34392547607421875 86.83179473876953125 87.66827392578125 92.1341094970703125 90.74066925048828125 87.72791290283203125 93.9821624755859375 98.96340179443359375 104.0648956298828125 105.4513702392578125 93.782318115234375 98.55141448974609375 101.7188720703125 106.85669708251953125 112.8665313720703125 111.4453887939453125 109.1361541748046875 112.748504638671875 108.74945068359375 111.026397705078125 114.4451904296875 120.61974334716796875 115.86376953125 109.37642669677734375 104.52901458740234375 98.4813232421875 102.71782684326171875 106.821746826171875 109.61669158935546875 116.58242034912109375 118.742523193359375 112.1331329345703125 107.61154937744140625 108.7379150390625 108.818206787109375 115.37320709228515625 120.0908203125 122.20938873291015625 122.5242156982421875 119.14464569091796875 117.22678375244140625 115.70192718505859375 114.16539764404296875 114.3254852294921875 114.286773681640625 113.7056427001953125 108.24088287353515625 106.50677490234375 109.2646636962890625 105.72325897216796875 99.83530426025390625 96.38243865966796875 86.4860382080078125 90.0312652587890625 88.297454833984375 90.853973388671875 86.84137725830078125 85.845550537109375 87.43622589111328125 78.4433135986328125 85.76691436767578125 87.084869384765625 91.62615966796875 89.2749176025390625 86.1602935791015625 80.2626190185546875 79.44197845458984375 79.58567047119140625 84.43082427978515625 86.6988372802734375 89.59925079345703125 90.26903533935546875 86.83684539794921875 91.75833892822265625 92.13961029052734375 97.6521453857421875 97.94709014892578125 100.93019866943359375 103.77977752685546875 103.216583251953125 105.88915252685546875 109.12892913818359375 102.65496826171875 101.13541412353515625 96.893646240234375 95.161163330078125 93.5549163818359375 91.52312469482421875 96.24222564697265625 100.20417022705078125 106.105560302734375 106.2759552001953125 104.82486724853515625 102.50212860107421875 103.0222015380859375 101.6044464111328125 100.94732666015625 99.08220672607421875 97.07241058349609375 100.130462646484375 97.90345001220703125 100.13440704345703125 104.86704254150390625 106.95966339111328125 109.75262451171875 110.07845306396484375 109.89841461181640625 106.73974609375
111.7002716064453125 113.73860931396484375 117.0418701171875 114.64380645751953125 119.7098236083984375 118.9643707275390625 121.00576019287109375 117.6677093505859375 117.5770416259765625 121.27596282958984375 118.297271728515625 124.0821380615234375 125.8860321044921875 126.20842742919921875 125.246917724609375 121.45714569091796875 124.06827545166015625 117.83425140380859375 121.67014312744140625 123.6045684814453125 118.86734771728515625 118.90529632568359375 121.652679443359375 122.79869842529296875 125.25222015380859375 125.94121551513671875 120.70162200927734375 123.4891815185546875 123.31171417236328125 121.42409515380859375 117.62252044677734375 110.06699371337890625 104.26746368408203125 97.30475616455078125 89.22296142578125 86.3482666015625 86.3387908935546875 86.391998291015625 86.2809600830078125 86.44564056396484375 86.2016143798828125 87.39075469970703125 88.28443145751953125 87.2432098388671875 95.913421630859375 99.12245941162109375 101.5805511474609375 99.91607666015625 90.67726898193359375 100.0192108154296875 106.371917724609375 109.58342742919921875 112.10103607177734375 105.19649505615234375 109.3654327392578125 106.99143218994140625 103.59686279296875 109.40976715087890625 117.68976593017578125 118.43267822265625 114.40973663330078125 109.491943359375 108.1133880615234375 101.27034759521484375 102.660797119140625 105.90386962890625 111.88932037353515625 114.826812744140625 116.29437255859375 110.56282806396484375 104.0076141357421875 105.14455413818359375 112.11004638671875 120.3033447265625 122.86676788330078125 120.65169525146484375 118.1463470458984375 118.416900634765625 116.2086944580078125 111.7165374755859375 109.0901031494140625 110.25588226318359375 112.93019866943359375 113.75897979736328125 114.26190948486328125 111.82463836669921875 108.8551177978515625 102.22382354736328125 98.63776397705078125 89.25542449951171875 95.68836212158203125 94.1272125244140625 95.13520050048828125 92.4847869873046875 87.899200439453125 89.3151397705078125 86.79021453857421875 85.60961151123046875 86.09482574462890625 87.55808258056640625 88.82033538818359375 85.9150543212890625 79.54126739501953125 80.0992584228515625 83.86757659912109375 81.63480377197265625 87.2987518310546875 90.0978240966796875 88.79860687255859375 93.7178802490234375 94.94384002685546875 91.8036346435546875 95.25677490234375 96.9559783935546875 101.80675506591796875 106.98549652099609375 104.6944427490234375 109.54370880126953125 109.75213623046875 106.25217437744140625 99.66542816162109375 97.33588409423828125 96.47335052490234375 92.02371978759765625 90.71417236328125 92.46840667724609375 98.5043792724609375 102.57151031494140625 104.197235107421875 104.75177001953125 101.91973114013671875 103.76902008056640625 103.90766143798828125 99.04431915283203125 97.20641326904296875 97.30617523193359375 95.5354156494140625 94.670501708984375 96.91309356689453125 99.3273773193359375 102.5731658935546875 107.64838409423828125 111.1384429931640625 109.19692230224609375 107.86359405517578125 106.59874725341796875
111.96384429931640625 112.10657501220703125 113.8038787841796875 113.566650390625 116.31093597412109375 117.915679931640625 118.88426971435546875 116.46596527099609375 116.28365325927734375 116.1857452392578125 118.157745361328125 123.4911041259765625 121.921356201171875 123.0009613037109375 122.87652587890625 122.29657745361328125 121.72015380859375 116.74022674560546875 118.00522613525390625 122.7902374267578125 118.96912384033203125 118.38610076904296875 117.392822265625 120.5253143310546875 123.5882568359375 125.52263641357421875 121.8139190673828125 123.16086578369140625 123.4220733642578125 125.24510955810546875 118.0852813720703125 102.5476226806640625 104.8845977783203125 107.75970458984375 94.7393035888671875 89.8356475830078125 86.3679046630859375 86.2285919189453125 86.25214385986328125 86.20043182373046875 86.3505096435546875 86.305694580078125 86.5162506103515625 86.6244659423828125 89.76776885986328125 96.41107940673828125 97.92984771728515625 90.649017333984375 95.29496002197265625 103.898529052734375 105.22198486328125 104.8045196533203125 110.0581207275390625 104.04264068603515625 102.04236602783203125 99.33281707763671875 112.70093536376953125 112.99495697021484375 116.95577239990234375 113.0619659423828125 113.057586669921875 111.47641754150390625 107.29366302490234375 99.91133880615234375 97.0590362548828125 100.803253173828125 108.57952880859375 109.2270355224609375 114.42713165283203125 109.848968505859375 101.0115966796875 104.3533935546875 114.02973175048828125 120.7112274169921875 120.7040557861328125 120.89874267578125 115.01729583740234375 112.263153076171875 115.393646240234375 112.5412445068359375 108.656219482421875 105.89820098876953125 109.12711334228515625 112.7177276611328125 111.30107879638671875 112.796966552734375 106.228759765625 98.14542388916015625 94.72521209716796875 94.23024749755859375 98.6558837890625 93.8634490966796875 99.40254974365234375 93.1170196533203125 91.47429656982421875 95.29543304443359375 88.4811553955078125 85.54821014404296875 76.7096710205078125 79.5621795654296875 86.11405181884765625 84.3383026123046875 78.346923828125 80.6927947998046875 90.30417633056640625 87.24858856201171875 86.61426544189453125 91.091888427734375 92.30046844482421875 95.4863128662109375 97.28565216064453125 95.35976409912109375 95.62210845947265625 98.130218505859375 101.1950225830078125 105.62105560302734375 107.8617401123046875 109.4788360595703125 108.1533660888671875 104.2260894775390625 101.98423004150390625 101.58893585205078125 102.302734375 93.86505889892578125 88.75673675537109375 92.65814971923828125 96.5591583251953125 98.9333343505859375 101.16501617431640625 97.04296875 100.8883056640625 102.590850830078125 102.92855072021484375 96.51430511474609375 95.5590362548828125 94.4285430908203125 96.6287689208984375 98.1445465087890625 98.5897369384765625 100.2381134033203125 101.962249755859375 105.33756256103515625 108.26146697998046875 108.4508209228515625 106.270233154296875 105.92086029052734375
125.48952484130859375 110.8942413330078125 111.15216827392578125 112.98644256591796875 113.70012664794921875 117.2760162353515625 116.60050201416015625 115.25710296630859375 114.2274322509765625 113.6458892822265625 120.28382110595703125 122.0091094970703125 116.0455474853515625 119.43529510498046875 118.73302459716796875 121.85646820068359375 122.14553070068359375 119.4975738525390625 114.1049652099609375 116.69140625 115.58150482177734375 119.5444793701171875 116.34165191650390625 118.60173797607421875 119.07086181640625 122.561737060546875 119.47768402099609375 118.1266937255859375 122.93072509765625 124.92580413818359375 114.347259521484375 114.81885528564453125 106.781982421875 101.89530181884765625 93.39019775390625 96.55190277099609375 86.34452056884765625 86.22896575927734375 86.19849395751953125 86.19849395751953125 86.49658203125 86.258209228515625 86.32761383056640625 86.352874755859375 86.34699249267578125 93.33110809326171875 94.81288909912109375 90.2055206298828125 98.5360565185546875 102.32657623291015625 100.46369171142578125 102.56114959716796875 103.86006927490234375 100.33486175537109375 95.3731689453125 106.34555816650390625 112.8971405029296875 110.34528350830078125 114.34418487548828125 109.31725311279296875 107.91698455810546875 110.80438995361328125 107.9552154541015625 106.84130096435546875 98.7041015625 95.96671295166015625 100.974884033203125 109.65688323974609375 111.5507659912109375 106.078338623046875 97.7997589111328125 106.17945098876953125 113.568695068359375 114.4877777099609375 115.92144775390625 120.375213623046875 116.07270050048828125 108.26373291015625 109.55419158935546875 107.64148712158203125 105.25713348388671875 104.2420196533203125 110.319488525390625 112.992706298828125 109.367401123046875 109.8877716064453125 106.93962860107421875 101.876434326171875 104.6980438232421875 97.62802886962890625 100.50406646728515625 97.8512420654296875 101.03626251220703125 94.6248779296875 95.24267578125 98.31169891357421875 93.519622802734375 93.19989013671875 81.1346435546875 76.1918182373046875 80.8023681640625 78.71312713623046875 78.102813720703125 82.78548431396484375 89.986572265625 91.08272552490234375 88.74013519287109375 88.87984466552734375 93.42046356201171875 96.6371917724609375 99.00811004638671875 100.68731689453125 98.7809295654296875 99.95902252197265625 101.14022064208984375 103.11865234375 107.3155364990234375 104.815582275390625 102.1835479736328125 104.79254913330078125 105.78537750244140625 104.8112335205078125 99.84780120849609375 93.04711151123046875 87.78755950927734375 93.53374481201171875 99.22314453125 99.04073333740234375 94.73940277099609375 99.14675140380859375 98.67596435546875 100.89548492431640625 98.254547119140625 96.22631072998046875 92.80303955078125 99.05910491943359375 101.97898101806640625 103.320037841796875 100.9553680419921875 103.7777252197265625 105.84682464599609375 106.97467041015625 109.96871185302734375 108.38391876220703125 104.92337799072265625 101.3035125732421875
128.7081451416015625 120.54825592041015625 110.22840118408203125 110.853759765625 111.34694671630859375 112.180267333984375 113.52492523193359375 116.60628509521484375 111.13196563720703125 112.615509033203125 117.5226593017578125 119.59712982177734375 113.712615966796875 116.1976776123046875 116.6925811767578125 119.44278717041015625 118.32802581787109375 118.76755523681640625 114.010284423828125 111.7158966064453125 113.20784759521484375 118.118377685546875 114.65079498291015625 117.70896148681640625 117.097900390625 118.89443206787109375 114.51746368408203125 119.23095703125 123.7701873779296875 124.7888641357421875 121.7795257568359375 110.94066619873046875 112.62923431396484375 103.7914886474609375 101.30571746826171875 99.20365142822265625 91.4854583740234375 86.19207000732421875 86.19849395751953125 86.19849395751953125 86.19849395751953125 86.19844818115234375 86.20558929443359375 86.27362823486328125 86.33898162841796875 86.65796661376953125 87.64862060546875 90.129058837890625 94.3721923828125 92.0908050537109375 94.56894683837890625 93.87737274169921875 97.8104248046875 92.67925262451171875 99.96268463134765625 111.7040557861328125 110.590545654296875 103.94378662109375 108.72771453857421875 106.80248260498046875 104.49991607666015625 109.00699615478515625 111.8696441650390625 108.16156768798828125 98.14322662353515625 94.8719024658203125 102.78464508056640625 106.96142578125 107.5066070556640625 99.39792633056640625 96.0880279541015625 106.27986907958984375 106.86325836181640625 108.05376434326171875 112.1011199951171875 118.64662933349609375 117.65396881103515625 112.2743988037109375 106.000579833984375 101.4584503173828125 101.759033203125 103.22019195556640625 109.326416015625 109.481201171875 105.734527587890625 105.93871307373046875 109.942413330078125 107.5216522216796875 106.38861083984375 102.58354949951171875 102.19094085693359375 101.57071685791015625 101.67273712158203125 97.74288177490234375 99.4005279541015625 96.88578033447265625 97.51082611083984375 93.1781463623046875 86.4113922119140625 78.5865631103515625 76.4343414306640625 77.2006988525390625 77.30614471435546875 78.95526885986328125 85.44081878662109375 89.4370574951171875 92.4437408447265625 90.73496246337890625 92.2383270263671875 94.695404052734375 96.78838348388671875 99.35292816162109375 103.50513458251953125 103.69829559326171875 107.08343505859375 109.4804534912109375 105.3877716064453125 100.4784393310546875 99.36774444580078125 102.92227935791015625 103.2819061279296875 102.553131103515625 98.17772674560546875 91.39810943603515625 87.978271484375 94.255706787109375 93.372711181640625 92.9190826416015625 99.973876953125 101.982513427734375 98.88510894775390625 95.21479034423828125 93.643798828125 92.40306854248046875 94.57134246826171875 99.51830291748046875 103.11733245849609375 104.44305419921875 103.24676513671875 105.12640380859375 104.0381317138671875 103.64659881591796875 108.66442108154296875 106.411956787109375 105.23007965087890625 104.00804901123046875
131.5162506103515625 128.8143463134765625 118.3727874755859375 109.47875213623046875 109.0540008544921875 108.6451873779296875 109.628509521484375 109.09365081787109375 108.701385498046875 111.276153564453125 111.82935333251953125 113.41704559326171875 112.1881103515625 113.3990478515625 114.87784576416015625 115.94086456298828125 112.46402740478515625 115.16851806640625 114.99256134033203125 111.3877716064453125 113.41741943359375 116.6651153564453125 112.4203948974609375 111.9714508056640625 116.2573394775390625 115.24190521240234375 112.77643585205078125 120.223297119140625 122.04198455810546875 119.58055877685546875 118.69956207275390625 119.000701904296875 118.4913330078125 113.37227630615234375 109.66699981689453125 106.33840179443359375 104.98148345947265625 93.961273193359375 86.19849395751953125 86.19849395751953125 86.19849395751953125 86.16918182373046875 86.13883209228515625 86.10416412353515625 86.09378814697265625 86.209381103515625 86.604705810546875 88.110137939453125 85.8049774169921875 85.8022003173828125 87.3005523681640625 90.42391204833984375 94.05867767333984375 93.166900634765625 101.54331207275390625 109.53594970703125 105.658050537109375 101.0153045654296875 105.91046142578125 103.91979217529296875 105.518463134765625 106.30255889892578125 107.5947418212890625 106.48188018798828125 100.10492706298828125 93.95476531982421875 95.11930084228515625 100.46204376220703125 102.86891937255859375 92.13251495361328125 98.121551513671875 101.31023406982421875 109.03398895263671875 113.13037872314453125 116.71484375 119.32352447509765625 114.6188201904296875 113.51895904541015625 111.3494415283203125 105.5752716064453125 97.48211669921875 103.16905975341796875 106.76120758056640625 107.78900146484375 99.03296661376953125 106.0640411376953125 110.36602020263671875 108.94252777099609375 106.73793792724609375 107.54956817626953125 104.774627685546875 105.03205108642578125 100.8576507568359375 98.96155548095703125 99.36435699462890625 96.26416015625 94.95163726806640625 91.35651397705078125 88.23041534423828125 80.290771484375 75.95821380615234375 76.282684326171875 76.55670928955078125 81.4424591064453125 87.627655029296875 90.20391845703125 92.0674896240234375 94.0228424072265625 90.9830780029296875 92.3283233642578125 95.809234619140625 99.9039154052734375 105.324798583984375 109.013092041015625 109.3007659912109375 105.86399078369140625 101.95195770263671875 97.04561614990234375 94.32807159423828125 97.5325927734375 98.928314208984375 98.88475799560546875 94.7691497802734375 86.95034027099609375 88.2065582275390625 90.11660003662109375 94.95371246337890625 98.9031524658203125 102.35208892822265625 103.08702850341796875 98.44110870361328125 93.9000701904296875 90.21317291259765625 94.0113525390625 97.746429443359375 96.7900543212890625 102.466156005859375 104.40586090087890625 103.6304473876953125 101.962738037109375 102.52252197265625 100.37776947021484375 103.85239410400390625 103.63330078125 104.7938385009765625 105.40216064453125
127.70966339111328125 119.7054901123046875 117.85860443115234375 109.99111175537109375 108.82796478271484375 108.23867034912109375 106.78859710693359375 107.13555908203125 106.967926025390625 106.98674774169921875 107.89719390869140625 111.19541168212890625 110.83708953857421875 111.25200653076171875 112.2169952392578125 112.51930999755859375 110.231719970703125 113.2361907958984375 112.49317169189453125 109.7885894775390625 108.68183135986328125 114.53722381591796875 113.139892578125 109.5272674560546875 113.695037841796875 111.05271148681640625 113.75104522705078125 117.5085296630859375 118.93589019775390625 115.24806976318359375 117.963165283203125 117.33447265625 117.0911102294921875 117.55966949462890625 115.6058807373046875 112.7303924560546875 104.37850189208984375 107.81793975830078125 90.1088409423828125 86.19849395751953125 86.19849395751953125 86.19849395751953125 86.19849395751953125 86.07508087158203125 91.1451263427734375 85.8757171630859375 85.921295166015625 86.9450531005859375 86.1913909912109375 85.80224609375 85.80224609375 85.80161285400390625 86.61402130126953125 92.06548309326171875 100.08524322509765625 104.16530609130859375 100.78278350830078125 97.77983856201171875 102.161895751953125 99.1512603759765625 104.44121551513671875 103.55544281005859375 103.534698486328125 99.38333892822265625 98.95662689208984375 91.723114013671875 91.77623748779296875 100.73895263671875 98.60558319091796875 89.70410919189453125 94.13527679443359375 100.12282562255859375 108.6447601318359375 112.1648406982421875 116.8457489013671875 112.3853607177734375 107.72806549072265625 111.58282470703125 111.44687652587890625 106.48766326904296875 99.50368499755859375 98.2274932861328125 101.23717498779296875 104.7796783447265625 93.1161041259765625 104.39421844482421875 107.4441070556640625 110.71582794189453125 108.201019287109375 105.95069122314453125 106.51680755615234375 104.2725372314453125 95.9726409912109375 94.39215850830078125 91.08127593994140625 92.0244293212890625 90.18505859375 90.87358856201171875 89.7359161376953125 86.86524200439453125 76.119873046875 76.2833709716796875 83.039886474609375 89.2252349853515625 91.9108123779296875 94.41391754150390625 93.523956298828125 90.68080902099609375 89.12789154052734375 91.72884368896484375 96.8856048583984375 102.66744232177734375 104.5912322998046875 105.8475189208984375 107.19922637939453125 105.01280975341796875 100.17537689208984375 97.20633697509765625 93.84305572509765625 91.4984283447265625 94.9720611572265625 94.69133758544921875 89.4918060302734375 85.62481689453125 91.41495513916015625 96.14852142333984375 99.41693115234375 101.396331787109375 101.6976165771484375 100.06912994384765625 96.54863739013671875 90.69274139404296875 92.062530517578125 100.345916748046875 102.0976409912109375 98.69940948486328125 103.29497528076171875 103.761962890625 99.04329681396484375 98.40262603759765625 100.34337615966796875 99.3404388427734375 99.818939208984375 102.7637786865234375 104.03719329833984375 105.03682708740234375
127.96826171875 115.95351409912109375 116.210174560546875 117.9048309326171875 111.57218170166015625 123.59746551513671875 121.11022186279296875 108.63411712646484375 106.40859222412109375 106.31861114501953125 106.1583099365234375 107.98523712158203125 109.720458984375 110.14806365966796875 110.79217529296875 110.60503387451171875 109.0517425537109375 109.64232635498046875 111.0879974365234375 111.45777130126953125 106.60890960693359375 108.95876312255859375 108.80217742919921875 107.8371429443359375 107.3489990234375 107.75727081298828125 109.8196258544921875 113.08994293212890625 115.02065277099609375 111.91071319580078125 114.82437896728515625 112.7250518798828125 116.3721923828125 115.84075164794921875 115.23523712158203125 116.2290802001953125 110.77800750732421875 111.31568145751953125 106.40096282958984375 89.12944793701171875 86.19280242919921875 86.2015533447265625 86.17728424072265625 85.98513031005859375 85.913726806640625 85.7199859619140625 85.8632049560546875 85.8377685546875 85.83111572265625 85.80224609375 85.80224609375 85.80489349365234375 85.77881622314453125 90.1223602294921875 95.66413116455078125 94.08904266357421875 95.20133209228515625 94.59278106689453125 99.86669158935546875 95.948455810546875 98.7233734130859375 99.5871734619140625 104.49877166748046875 101.80274200439453125 101.3260650634765625 95.6376953125 88.04726409912109375 96.77020263671875 94.61629486083984375 88.19474029541015625 96.11444854736328125 104.16957855224609375 112.968231201171875 115.672119140625 116.61516571044921875 108.2812347412109375 101.965118408203125 106.621734619140625 111.17775726318359375 107.88594818115234375 103.2939453125 91.2622528076171875 99.91049957275390625 102.85570526123046875 92.14182281494140625 98.0503997802734375 104.96904754638671875 105.28072357177734375 108.31003570556640625 102.866119384765625 105.39771270751953125 101.81170654296875 101.12664031982421875 93.08759307861328125 88.2587738037109375 87.95839691162109375 82.90547943115234375 84.06243133544921875 83.5275421142578125 82.04268646240234375 78.5857086181640625 75.92242431640625 84.17803192138671875 89.4681396484375 91.4568023681640625 90.79976654052734375 91.6016998291015625 87.8433837890625 87.55560302734375 93.4465789794921875 99.1421356201171875 96.144134521484375 95.7820587158203125 102.23863983154296875 106.3253936767578125 108.1232147216796875 107.0214385986328125 103.90729522705078125 96.92364501953125 91.55425262451171875 89.42479705810546875 91.3979949951171875 85.30637359619140625 87.4537506103515625 89.81714630126953125 93.79198455810546875 97.44316864013671875 100.55957794189453125 99.44062042236328125 96.662353515625 95.0670318603515625 88.8508758544921875 94.3773193359375 101.4656829833984375 101.19718170166015625 102.407867431640625 104.40660858154296875 103.36631011962890625 98.8018341064453125 95.74127960205078125 95.87111663818359375 95.19033050537109375 99.91365814208984375 104.0582733154296875 102.5705108642578125 106.25009918212890625
121.04308319091796875 128.0679473876953125 120.9245147705078125 125.34328460693359375 114.3264312744140625 129.17449951171875 123.8509063720703125 115.959259033203125 124.88286590576171875 117.97985076904296875 105.92295074462890625 105.220611572265625 106.70733642578125 106.6483154296875 108.652435302734375 108.16620635986328125 107.72351837158203125 107.54540252685546875 109.2845611572265625 109.04067230224609375 105.186492919921875 106.1974945068359375 107.46440887451171875 105.8673248291015625 105.2281646728515625 105.70287322998046875 106.95429229736328125 108.1015777587890625 110.164581298828125 110.67754364013671875 110.7419281005859375 112.87774658203125 116.619140625 112.29296112060546875 112.215179443359375 115.6609344482421875 116.31272125244140625 116.37591552734375 104.67784881591796875 102.322052001953125 108.51097869873046875 102.30054473876953125 89.54244232177734375 87.46158599853515625 98.17486572265625 93.2679443359375 87.4357147216796875 85.83272552490234375 85.81214141845703125 85.80224609375 85.771759033203125 85.771759033203125 85.74135589599609375 85.71080780029296875 85.6868133544921875 89.1633148193359375 89.77872467041015625 97.8396759033203125 96.25089263916015625 93.43799591064453125 95.49895477294921875 95.92415618896484375 101.61765289306640625 108.3233489990234375 108.9876708984375 101.1597747802734375 91.5997772216796875 90.6263275146484375 91.916015625 90.78911590576171875 100.5014495849609375 102.77196502685546875 110.229156494140625 109.91797637939453125 109.33896636962890625 102.44190216064453125 97.822418212890625 99.86775970458984375 108.8921661376953125 102.75914764404296875 103.55744171142578125 89.0707244873046875 94.89926910400390625 97.78754425048828125 89.87094879150390625 99.45697784423828125 104.59909820556640625 105.0133209228515625 104.80640411376953125 98.09462738037109375 103.10321807861328125 106.17635345458984375 104.24025726318359375 95.32415771484375 94.24958038330078125 93.70087432861328125 85.3031158447265625 86.32030487060546875 86.41710662841796875 81.1072540283203125 80.85944366455078125 75.167724609375 79.8180694580078125 86.2992401123046875 88.82888031005859375 87.83637237548828125 86.430328369140625 84.70082855224609375 88.024444580078125 91.26049041748046875 90.99715423583984375 92.04904937744140625 96.30496978759765625 102.3460540771484375 105.20369720458984375 107.940093994140625 103.65810394287109375 101.66657257080078125 96.346405029296875 98.286407470703125 87.3717193603515625 86.7210845947265625 84.77951812744140625 88.6331329345703125 92.81703948974609375 98.2349090576171875 98.133941650390625 100.5597686767578125 97.10945892333984375 94.79327392578125 90.98211669921875 88.76757049560546875 91.36389923095703125 95.96770477294921875 98.77671051025390625 103.04405975341796875 104.2978515625 100.20211029052734375 98.60990142822265625 93.73236083984375 93.0346527099609375 96.6017913818359375 102.406219482421875 104.3541107177734375 100.11717987060546875 100.94321441650390625
134.0711212158203125 125.452392578125 127.893707275390625 131.119537353515625 118.66658782958984375 129.9435577392578125 121.0579376220703125 119.94029998779296875 129.0186004638671875 119.145355224609375 117.21829986572265625 108.37624359130859375 104.58353424072265625 104.67620086669921875 105.02779388427734375 104.84456634521484375 105.5430145263671875 104.7290802001953125 106.8326568603515625 105.865814208984375 104.75302886962890625 103.86209869384765625 104.61614990234375 104.106353759765625 103.4726715087890625 104.47389984130859375 106.6863250732421875 104.91766357421875 106.0662994384765625 104.29788970947265625 105.3793487548828125 109.94855499267578125 112.82857513427734375 110.30373382568359375 110.35214996337890625 111.53606414794921875 112.1354827880859375 117.09302520751953125 115.98448944091796875 102.50311279296875 111.6484375 111.03270721435546875 99.8873443603515625 109.46537017822265625 106.19440460205078125 102.75571441650390625 98.31722259521484375 100.101531982421875 85.8018951416015625 85.78760528564453125 85.771759033203125 85.7403717041015625 85.74263763427734375 85.71080780029296875 85.71080780029296875 85.67632293701171875 89.8973236083984375 94.2541656494140625 93.0631256103515625 91.19956207275390625 92.097198486328125 97.51071929931640625 105.45074462890625 104.52744293212890625 112.57472991943359375 108.23303985595703125 99.04510498046875 87.26941680908203125 86.6066131591796875 88.43091583251953125 96.82212066650390625 102.8978271484375 105.0459747314453125 104.72034454345703125 102.7613525390625 94.7795867919921875 96.40029144287109375 98.65543365478515625 108.7165985107421875 106.62802886962890625 98.923583984375 95.88861846923828125 84.692840576171875 91.6729583740234375 95.787933349609375 103.97608184814453125 101.51263427734375 101.0280609130859375 99.2083282470703125 96.239959716796875 102.46410369873046875 108.100921630859375 106.97223663330078125 103.1211090087890625 99.4079132080078125 93.3304443359375 88.94574737548828125 93.03851318359375 91.98487091064453125 84.7660369873046875 85.60265350341796875 75.58106231689453125 80.8272705078125 86.73694610595703125 87.0735931396484375 83.92845916748046875 81.9277801513671875 83.8121185302734375 85.2055816650390625 86.68895721435546875 92.65096282958984375 98.302978515625 101.52970123291015625 104.6228790283203125 103.02472686767578125 105.70027923583984375 104.6230621337890625 98.60977935791015625 95.2950439453125 93.99787139892578125 90.5944976806640625 83.695068359375 85.6898956298828125 91.99005126953125 96.1999969482421875 99.59984588623046875 100.58063507080078125 99.41268157958984375 92.671051025390625 93.56394195556640625 89.40421295166015625 90.5767669677734375 96.3740081787109375 98.12644195556640625 100.5565185546875 103.4857330322265625 102.29061126708984375 98.8562469482421875 93.99448394775390625 92.4628143310546875 93.71820068359375 98.3273468017578125 101.8326568603515625 102.61338043212890625 98.60280609130859375 99.95592498779296875
139.2060699462890625 134.1814727783203125 134.92333984375 134.2548828125 120.071380615234375 132.1829071044921875 132.9547882080078125 126.31000518798828125 132.5486297607421875 125.450958251953125 123.55938720703125 125.7476806640625 110.0767669677734375 103.96714019775390625 103.51190948486328125 103.13817596435546875 103.071624755859375 102.33776092529296875 102.8082427978515625 103.4810028076171875 103.91571044921875 101.5659942626953125 101.82741546630859375 102.91064453125 101.28366851806640625 103.10866546630859375 102.499114990234375 102.31705474853515625 103.83776092529296875 101.140472412109375 103.86035919189453125 105.29553985595703125 108.76145172119140625 107.62523651123046875 107.11367034912109375 107.270416259765625 111.18218231201171875 115.6388702392578125 114.70594024658203125 113.1372833251953125 114.38584136962890625 112.8724822998046875 112.4409332275390625 106.4064483642578125 108.67092132568359375 108.6495819091796875 108.3364410400390625 105.68932342529296875 96.7673492431640625 85.79987335205078125 85.7723541259765625 85.7412872314453125 85.70948028564453125 85.71080780029296875 85.68032073974609375 85.68032073974609375 85.7394256591796875 88.589508056640625 90.2872314453125 88.9495086669921875 89.97350311279296875 93.76447296142578125 100.38698577880859375 103.1417083740234375 110.56789398193359375 108.4680328369140625 103.15116119384765625 93.36151885986328125 87.42193603515625 90.4598541259765625 97.1740570068359375 101.1710052490234375 99.5040435791015625 97.14730072021484375 86.94405364990234375 84.62346649169921875 91.114288330078125 98.3404541015625 106.3575286865234375 101.1027984619140625 89.567657470703125 100.7654876708984375 82.36434173583984375 85.7275238037109375 93.3305206298828125 101.71735382080078125 97.8571319580078125 97.551544189453125 93.11869049072265625 96.7238311767578125 103.8339996337890625 108.83435821533203125 112.23618316650390625 104.644195556640625 98.12668609619140625 90.9160308837890625 93.64192962646484375 95.689697265625 93.3509979248046875 90.569366455078125 79.10199737548828125 75.75316619873046875 76.5791778564453125 83.5574188232421875 85.62493896484375 80.8922119140625 81.5487060546875 85.35986328125 90.9875946044921875 96.0274505615234375 97.38739776611328125 101.2800140380859375 100.561859130859375 103.05680084228515625 99.55975341796875 102.89385223388671875 103.21288299560546875 101.30889129638671875 94.67046356201171875 89.89403533935546875 85.778564453125 83.631805419921875 87.9860382080078125 88.9510345458984375 95.326141357421875 99.84566497802734375 99.6546630859375 99.50066375732421875 96.1464691162109375 90.14703369140625 88.52834320068359375 91.27098846435546875 98.9046630859375 99.702117919921875 98.77350616455078125 100.1831512451171875 97.3406982421875 96.64171600341796875 94.65716552734375 89.37689971923828125 92.52152252197265625 96.55860137939453125 99.18573760986328125 99.4411468505859375 96.3165740966796875 96.52669525146484375
140.77789306640625 132.2435302734375 132.345703125 127.22296905517578125 125.87320709228515625 131.7558441162109375 131.5599822998046875 128.7175445556640625 131.4659423828125 126.84764862060546875 126.11846923828125 125.71488189697265625 122.281829833984375 120.60507965087890625 120.32421112060546875 102.596710205078125 101.76038360595703125 101.02490997314453125 100.2274932861328125 100.45124053955078125 100.20529937744140625 100.476776123046875 99.44390869140625 100.64189910888671875 99.850860595703125 99.2149200439453125 99.76052093505859375 99.5898895263671875 100.66719818115234375 98.5286865234375 99.79880523681640625 101.52582550048828125 104.1071319580078125 105.016021728515625 103.106903076171875 103.64310455322265625 108.2270965576171875 112.67755889892578125 111.6025543212890625 109.14315032958984375 111.2313995361328125 109.8854217529296875 110.771026611328125 104.85468292236328125 104.96376800537109375 107.22452545166015625 106.28849029541015625 104.3123321533203125 102.42998504638671875 86.13114166259765625 85.7412872314453125 85.7412872314453125 85.708526611328125 85.71080780029296875 85.68032073974609375 85.68032073974609375 85.64984130859375 86.90838623046875 87.60225677490234375 85.5607147216796875 88.13311004638671875 90.2245635986328125 93.19031524658203125 100.157684326171875 103.8988037109375 101.9852142333984375 102.69829559326171875 95.94171142578125 82.32386016845703125 81.54561614990234375 91.53542327880859375 94.42295074462890625 92.22198486328125 87.8228302001953125 81.18572998046875 81.1355743408203125 83.67401885986328125 89.890655517578125 99.68912506103515625 95.496490478515625 94.11916351318359375 95.73325347900390625 91.22686767578125 84.69878387451171875 96.77150726318359375 99.45842742919921875 96.73604583740234375 88.3433074951171875 91.12288665771484375 97.27020263671875 104.0762939453125 108.22308349609375 108.83153533935546875 105.36486053466796875 101.2214508056640625 94.744476318359375 98.30179595947265625 94.54250335693359375 91.584716796875 86.811065673828125 76.15473175048828125 75.59804534912109375 76.1022491455078125 82.22644805908203125 83.68576812744140625 77.9497833251953125 82.544158935546875 89.6186370849609375 94.53823089599609375 101.4641571044921875 103.5804290771484375 99.9015655517578125 99.830535888671875 98.6332855224609375 98.192169189453125 100.31845855712890625 102.33295440673828125 98.03334808349609375 96.4517974853515625 96.03374481201171875 89.2408905029296875 84.13427734375 90.4478302001953125 96.168792724609375 97.666412353515625 99.6635894775390625 96.62003326416015625 98.21556854248046875 95.7356719970703125 89.43021392822265625 88.43749237060546875 93.2044525146484375 99.6317138671875 99.1567535400390625 93.28639984130859375 95.15422821044921875 97.1203765869140625 95.47838592529296875 93.428924560546875 88.32434844970703125 90.638702392578125 95.138275146484375 96.92302703857421875 99.58966827392578125 97.092681884765625 94.9853363037109375
141.47900390625 137.4042510986328125 139.0755462646484375 139.429595947265625 133.3107452392578125 131.7722930908203125 126.32305145263671875 125.99939727783203125 120.22011566162109375 117.895111083984375 116.7205963134765625 114.52776336669921875 115.60236358642578125 111.90219879150390625 108.0675811767578125 105.75199127197265625 103.822113037109375 104.99285125732421875 102.71282958984375 101.67315673828125 100.5455169677734375 99.98487091064453125 99.14826202392578125 98.55792999267578125 98.1659698486328125 97.63629913330078125 96.8544464111328125 96.75121307373046875 96.40702056884765625 96.40973663330078125 95.9303131103515625 99.49784088134765625 100.7824249267578125 102.56548309326171875 100.69020843505859375 101.19690704345703125 103.77606201171875 104.83310699462890625 107.41841888427734375 107.818450927734375 105.20738983154296875 108.3487396240234375 106.88668060302734375 104.85260009765625 98.53729248046875 101.0625152587890625 101.56783294677734375 99.4036102294921875 98.7498626708984375 96.27001190185546875 85.76560211181640625 85.74147796630859375 85.7412872314453125 85.71080780029296875 85.68032073974609375 85.64984130859375 85.6492156982421875 85.62474822998046875 85.58882904052734375 85.5274200439453125 86.097442626953125 87.258087158203125 89.18447113037109375 92.941680908203125 95.11231231689453125 95.08022308349609375 95.66300201416015625 95.5406646728515625 81.6728973388671875 81.70412445068359375 81.32837677001953125 83.51371002197265625 83.60646820068359375 80.2384490966796875 78.67098236083984375 78.40576934814453125 78.4988250732421875 78.17340850830078125 86.6931610107421875 79.58322906494140625 79.68737030029296875 82.1746368408203125 79.4907379150390625 79.9914093017578125 88.18785858154296875 97.44185638427734375 95.8137969970703125 86.88653564453125 91.706878662109375 96.70377349853515625 101.66767120361328125 103.3813629150390625 106.4757537841796875 102.32861328125 104.53900909423828125 101.6865997314453125 99.50707244873046875 94.6906280517578125 88.5525970458984375 82.50443267822265625 80.199951171875 75.1103363037109375 75.41921234130859375 76.69893646240234375 78.43100738525390625 77.98040771484375 82.631622314453125 87.0289154052734375 92.7471923828125 94.973236083984375 96.4368743896484375 93.63013458251953125 91.65389251708984375 97.0394134521484375 100.7262420654296875 101.1898956298828125 101.14789581298828125 98.63260650634765625 95.8987884521484375 91.6507568359375 87.0809783935546875 84.122955322265625 91.7363433837890625 96.4183349609375 100.57373046875 99.64496612548828125 94.21367645263671875 92.32328033447265625 93.41835784912109375 87.3078155517578125 88.44020843505859375 98.07901763916015625 99.1165924072265625 98.22295379638671875 90.51395416259765625 93.81732177734375 93.4218597412109375 91.92325592041015625 92.748321533203125 87.80265045166015625 92.93888092041015625 95.6179962158203125 98.29521942138671875 101.3893890380859375 99.27802276611328125 95.37554931640625
136.110198974609375 138.8521728515625 141.011383056640625 141.717010498046875 137.6267547607421875 130.704986572265625 129.097198486328125 128.942901611328125 128.101409912109375 127.8238067626953125 127.339080810546875 127.6819305419921875 120.0684051513671875 127.27463531494140625 120.37653350830078125 120.607391357421875 107.25165557861328125 116.0498809814453125 111.54998779296875 104.24134063720703125 102.2566375732421875 102.5301055908203125 111.47536468505859375 105.3060760498046875 99.06587982177734375 100.4687347412109375 103.9506072998046875 96.3029632568359375 96.043365478515625 95.3133392333984375 95.123748779296875 95.94617462158203125 97.8642730712890625 96.520843505859375 99.9500579833984375 99.49764251708984375 100.09814453125 99.3551025390625 101.94451904296875 104.306365966796875 100.4032745361328125 104.8835906982421875 102.90462493896484375 100.2828216552734375 98.3549041748046875 98.3633575439453125 96.51116180419921875 93.342681884765625 93.9972076416015625 92.1410369873046875 89.6566162109375 85.71701812744140625 85.76163482666015625 85.7412872314453125 85.70953369140625 85.64984130859375 85.61936187744140625 85.588897705078125 85.55829620361328125 85.5303497314453125 85.39710235595703125 85.00384521484375 84.712005615234375 84.32776641845703125 84.09014129638671875 83.57216644287109375 89.275909423828125 82.356201171875 82.10381317138671875 81.91008758544921875 81.7129058837890625 80.5328369140625 79.37985992431640625 78.44846343994140625 78.822784423828125 78.71155548095703125 78.96610260009765625 78.03162384033203125 78.6405792236328125 78.09574127197265625 77.05181884765625 77.98816680908203125 77.98926544189453125 78.48089599609375 78.338287353515625 87.24198150634765625 85.78417205810546875 88.33582305908203125 91.47231292724609375 96.54349517822265625 100.03878021240234375 105.628173828125 107.09175872802734375 102.17829132080078125 96.6338348388671875 96.90331268310546875 94.96691131591796875 90.42014312744140625 88.34842681884765625 86.46897125244140625 86.141632080078125 84.92142486572265625 74.664093017578125 75.2109375 75.1360015869140625 78.4378662109375 81.49335479736328125 86.346160888671875 89.75005340576171875 94.03264617919921875 91.82683563232421875 86.61934661865234375 90.89665985107421875 98.3406829833984375 101.63103485107421875 96.88030242919921875 96.58092498779296875 96.51747894287109375 90.68239593505859375 89.86379241943359375 84.0193328857421875 86.17090606689453125 91.399993896484375 96.4113006591796875 99.552093505859375 97.6982879638671875 97.62316131591796875 91.60831451416015625 87.07550811767578125 85.30507659912109375 87.8668060302734375 92.1679229736328125 97.07338714599609375 98.72269439697265625 94.18038177490234375 86.98638916015625 90.33661651611328125 87.764801025390625 86.16017913818359375 88.43206787109375 94.4063568115234375 97.09554290771484375 100.23332977294921875 100.92314910888671875 99.257110595703125 95.942169189453125
133.4991912841796875 138.04510498046875 138.2426910400390625 138.540740966796875 136.86614990234375 131.2526397705078125 135.547454833984375 136.6641998291015625 132.7601165771484375 130.589263916015625 132.9482879638671875 131.305999755859375 129.4203033447265625 133.770660400390625 128.749847412109375 119.08617401123046875 120.677215576171875 114.3908843994140625 119.58191680908203125 106.85541534423828125 117.31812286376953125 114.4953155517578125 126.0807952880859375 117.21984100341796875 123.478973388671875 116.5780792236328125 120.98424530029296875 119.507965087890625 116.9334869384765625 95.43042755126953125 94.659576416015625 93.92279052734375 93.96912384033203125 93.0968780517578125 97.07283782958984375 98.1616668701171875 97.9619598388671875 94.8135528564453125 97.7935791015625 100.5016326904296875 99.777557373046875 99.59995269775390625 95.5673065185546875 94.9435577392578125 91.8654022216796875 90.0014801025390625 88.7398223876953125 88.62445068359375 88.1195831298828125 86.34366607666015625 85.865142822265625 85.80236053466796875 85.78656005859375 85.770294189453125 85.71268463134765625 85.6588897705078125 85.605560302734375 85.5888214111328125 85.55654144287109375 85.50064849853515625 85.36215972900390625 84.91649627685546875 84.70143890380859375 84.30947113037109375 84.0705413818359375 83.47686004638671875 83.0145111083984375 82.7948455810546875 82.3768310546875 82.19542694091796875 81.9172210693359375 79.5736236572265625 78.44425201416015625 78.906982421875 78.607666015625 79.5537567138671875 79.414581298828125 78.2111968994140625 77.90131378173828125 77.94844818115234375 77.6499176025390625 77.44159698486328125 77.64697265625 77.4718170166015625 77.205810546875 78.11522674560546875 84.23561859130859375 88.7400054931640625 93.43630218505859375 99.990478515625 104.54233551025390625 106.39015960693359375 102.1125946044921875 101.8895721435546875 96.969024658203125 89.95569610595703125 89.78818511962890625 86.00018310546875 84.55516815185546875 80.0002593994140625 79.05869293212890625 76.15505218505859375 74.61698150634765625 74.60878753662109375 74.803375244140625 77.5937042236328125 80.0970458984375 83.673828125 89.631866455078125 94.15386962890625 86.5770111083984375 87.9810943603515625 96.1491546630859375 95.3334808349609375 99.88895416259765625 98.08110809326171875 91.8286285400390625 90.4677886962890625 86.72086334228515625 85.27001190185546875 80.59560394287109375 84.9599456787109375 90.979095458984375 95.25016021728515625 98.5821533203125 93.8611602783203125 95.626068115234375 93.50492095947265625 86.02393341064453125 87.8827972412109375 93.90142822265625 96.08921051025390625 98.66132354736328125 98.977569580078125 94.83422088623046875 88.12451934814453125 86.78688812255859375 85.1003265380859375 86.2065277099609375 89.19681549072265625 93.7513427734375 98.21445465087890625 99.17035675048828125 97.5420989990234375 95.34217071533203125 89.454010009765625
128.3559722900390625 131.6408233642578125 133.7724761962890625 138.0798797607421875 139.017181396484375 136.4813232421875 137.1886138916015625 142.058685302734375 135.603118896484375 132.7125701904296875 136.9993438720703125 134.647674560546875 128.263397216796875 135.3497314453125 127.12064361572265625 118.8497314453125 125.926910400390625 126.4792938232421875 123.295135498046875 110.66751861572265625 120.37255096435546875 125.57366943359375 123.62433624267578125 119.1879119873046875 119.0009918212890625 117.406158447265625 116.4389801025390625 112.67432403564453125 113.11872100830078125 108.83563232421875 94.7796478271484375 94.38646697998046875 93.43129730224609375 92.98291778564453125 92.260955810546875 92.35523223876953125 92.6213531494140625 92.0512542724609375 92.57906341552734375 91.78558349609375 93.54860687255859375 93.122314453125 89.08837890625 88.65529632568359375 87.294464111328125 86.37644195556640625 85.98728179931640625 85.9544677734375 85.92421722412109375 85.8936920166015625 85.8632049560546875 85.83272552490234375 85.80529022216796875 93.27813720703125 85.74539947509765625 85.65289306640625 85.59112548828125 85.55840301513671875 85.527923583984375 85.49674224853515625 85.31206512451171875 84.97818756103515625 84.6467132568359375 84.30968475341796875 84.010467529296875 83.54863739013671875 83.1927490234375 82.92035675048828125 82.65047454833984375 82.4457855224609375 82.53143310546875 82.5578155517578125 82.62249755859375 80.8909759521484375 80.4390869140625 79.68183135986328125 78.67691802978515625 78.10367584228515625 77.76688385009765625 77.618072509765625 76.3809356689453125 77.026397705078125 77.2332000732421875 77.27628326416015625 78.02911376953125 86.47797393798828125 84.15685272216796875 92.036346435546875 94.1306915283203125 102.02138519287109375 106.6686553955078125 102.12896728515625 96.59008026123046875 98.371917724609375 95.3050537109375 92.3369598388671875 86.86734771728515625 83.96538543701171875 84.84502410888671875 88.1047515869140625 86.564300537109375 84.4510345458984375 74.18195343017578125 74.189605712890625 74.50063323974609375 75.61408233642578125 81.316131591796875 86.71257781982421875 90.2929229736328125 89.024383544921875 82.3664703369140625 92.3411407470703125 98.789581298828125 99.70763397216796875 100.612152099609375 101.00313568115234375 96.50035858154296875 90.5175018310546875 92.932037353515625 85.6905517578125 80.815826416015625 83.71260833740234375 89.03078460693359375 93.3674774169921875 97.63623809814453125 91.19301605224609375 88.3681640625 88.93766021728515625 84.6712188720703125 86.10355377197265625 93.41564178466796875 96.9537353515625 96.773895263671875 95.34526824951171875 90.721923828125 87.9705047607421875 83.0096893310546875 83.00926971435546875 88.82566070556640625 94.35129547119140625 95.96648406982421875 97.307861328125 98.533966064453125 94.99668121337890625 94.783447265625 96.5638275146484375
131.3605194091796875 134.7197113037109375 138.593994140625 141.036590576171875 141.2475128173828125 140.739044189453125 140.6124420166015625 141.84393310546875 138.6820526123046875 137.065155029296875 138.5654144287109375 136.952972412109375 136.204742431640625 136.879730224609375 128.197052001953125 128.56793212890625 128.249908447265625 132.109405517578125 122.9207000732421875 110.61820220947265625 123.985076904296875 126.3574981689453125 116.99825286865234375 112.3280181884765625 109.30455780029296875 107.73513031005859375 104.57958984375 104.0589141845703125 100.201934814453125 98.783111572265625 97.2971343994140625 98.33295440673828125 94.1252288818359375 92.90471649169921875 92.09105682373046875 91.70650482177734375 91.30340576171875 91.23089599609375 90.90894317626953125 90.08636474609375 89.8813934326171875 88.16820526123046875 87.8294219970703125 87.10359954833984375 87.46445465087890625 86.58989715576171875 97.3609161376953125 88.24016571044921875 93.1092529296875 88.01678466796875 85.90118408203125 91.40633392333984375 104.1060638427734375 101.095672607421875 85.65789031982421875 85.56124114990234375 85.55840301513671875 85.61858367919921875 85.59293365478515625 85.5765533447265625 85.31061553955078125 84.9724578857421875 84.61437225341796875 84.2847137451171875 83.97623443603515625 83.6715087890625 83.34290313720703125 83.06882476806640625 82.79241180419921875 82.5902862548828125 90.79346466064453125 90.2682342529296875 86.87244415283203125 86.09686279296875 83.94568634033203125 82.2044219970703125 79.89888763427734375 78.48983001708984375 77.96166229248046875 77.6678924560546875 77.2148284912109375 76.62352752685546875 76.93907928466796875 77.16413116455078125 80.0074310302734375 80.1897430419921875 85.448516845703125 92.44066619873046875 95.0066986083984375 102.01459503173828125 102.257537841796875 100.154083251953125 92.39728546142578125 95.1801910400390625 93.03717803955078125 93.27997589111328125 91.7285919189453125 95.40676116943359375 92.8963775634765625 98.03124237060546875 94.46974945068359375 84.75125885009765625 74.79195404052734375 73.88674163818359375 74.28592681884765625 74.04734039306640625 78.47418975830078125 85.55706024169921875 85.33182525634765625 80.10468292236328125 87.39716339111328125 94.69077301025390625 93.632354736328125 99.9463348388671875 101.3838348388671875 103.2760467529296875 100.68312835693359375 97.29412841796875 94.18442535400390625 87.842254638671875 82.143951416015625 85.17507171630859375 93.21074676513671875 94.9665985107421875 95.13402557373046875 95.79650115966796875 91.4149017333984375 86.6952056884765625 81.845855712890625 90.72180938720703125 96.06160736083984375 95.94290924072265625 94.4007568359375 94.98882293701171875 89.05028533935546875 84.94805908203125 81.367462158203125 85.675872802734375 89.87189483642578125 95.725433349609375 97.00800323486328125 96.387603759765625 96.4911346435546875 99.50894927978515625 99.05892181396484375 92.49224090576171875
131.914306640625 134.081878662109375 136.263671875 139.7578887939453125 137.2089080810546875 136.430816650390625 139.3782806396484375 139.1170654296875 135.8148345947265625 133.0280609130859375 134.236297607421875 139.849609375 138.617645263671875 130.45074462890625 126.76595306396484375 131.56329345703125 130.9305419921875 133.2145538330078125 125.1385040283203125 113.27347564697265625 125.85848236083984375 122.26827239990234375 116.78871917724609375 122.75077056884765625 118.51174163818359375 119.31279754638671875 112.9987030029296875 106.47646331787109375 104.79888916015625 110.1621856689453125 106.1528167724609375 101.9574127197265625 109.23610687255859375 95.486358642578125 92.77400970458984375 93.25312042236328125 91.02300262451171875 90.92449951171875 90.51313018798828125 90.08769989013671875 89.625885009765625 88.5135498046875 88.2010040283203125 94.693328857421875 98.462158203125 101.66546630859375 106.625701904296875 99.81585693359375 103.92519378662109375 110.47908782958984375 106.387298583984375 106.6993255615234375 104.54305267333984375 103.01617431640625 100.115875244140625 85.55840301513671875 85.5557861328125 85.6969757080078125 85.71196746826171875 85.67800140380859375 85.3135528564453125 84.9493560791015625 84.62079620361328125 84.26763916015625 83.9760894775390625 83.7283935546875 83.4616241455078125 83.1616973876953125 82.95632171630859375 82.6732330322265625 93.45679473876953125 93.84792327880859375 89.17718505859375 87.0867767333984375 84.8946075439453125 83.25643157958984375 80.12481689453125 79.23976898193359375 79.12221527099609375 77.45217132568359375 77.3791656494140625 77.16349029541015625 76.8831787109375 76.89931488037109375 77.91172027587890625 80.72354888916015625 85.95806884765625 90.72692108154296875 92.09822845458984375 91.527923583984375 97.42180633544921875 97.87116241455078125 89.59586334228515625 90.09039306640625 89.0568695068359375 92.84243011474609375 95.9130096435546875 100.248931884765625 102.1776580810546875 99.2701263427734375 87.35874176025390625 87.44852447509765625 73.97733306884765625 74.139984130859375 73.76770782470703125 74.09551239013671875 74.22168731689453125 81.4190521240234375 78.877197265625 84.8092041015625 90.32117462158203125 87.95963287353515625 95.37281036376953125 99.674041748046875 101.436309814453125 96.73896026611328125 95.6587982177734375 95.06683349609375 93.9814605712890625 89.89145660400390625 83.31771087646484375 83.37313079833984375 90.77288055419921875 95.07073211669921875 93.252960205078125 94.47040557861328125 90.05864715576171875 88.28696441650390625 81.205841064453125 88.32126617431640625 91.293243408203125 94.632568359375 91.6421051025390625 93.4737396240234375 89.19305419921875 82.4364013671875 82.7187957763671875 83.95633697509765625 87.26245880126953125 89.042633056640625 94.48874664306640625 97.3452606201171875 97.7651214599609375 97.5760345458984375 95.905364990234375 92.9802398681640625
129.9361114501953125 134.3807525634765625 136.4519500732421875 136.017364501953125 132.688568115234375 134.0315704345703125 140.3663330078125 138.4269866943359375 132.68994140625 135.3219146728515625 132.7650604248046875 137.6019744873046875 139.65234375 138.83154296875 133.2760467529296875 137.51904296875 136.703948974609375 136.6067657470703125 130.1389923095703125 116.23822021484375 123.8232574462890625 118.72121429443359375 122.98603057861328125 128.4220733642578125 123.73171234130859375 114.94461822509765625 107.2300567626953125 119.52408599853515625 109.68265533447265625 117.09305572509765625 110.8402862548828125 105.79145050048828125 114.88694000244140625 117.01197052001953125 108.50750732421875 98.5393524169921875 108.9296875 92.76149749755859375 89.91794586181640625 89.8755035400390625 89.83399200439453125 89.2290496826171875 88.27044677734375 91.62640380859375 96.16680145263671875 107.4608154296875 114.18906402587890625 108.18285369873046875 110.52136993408203125 108.77519989013671875 106.25960540771484375 104.1487884521484375 101.94928741455078125 100.0018310546875 97.57386016845703125 97.3891754150390625 87.71987152099609375 85.80146026611328125 85.85175323486328125 85.78377532958984375 85.34001922607421875 84.9798431396484375 84.71347808837890625 84.2826690673828125 84.0366973876953125 83.7774505615234375 83.5452423095703125 88.50189208984375 83.04573822021484375 88.9448394775390625 101.123199462890625 99.5606842041015625 91.49395751953125 88.01691436767578125 85.68682098388671875 81.35811614990234375 83.79962921142578125 84.61908721923828125 78.288116455078125 77.6555633544921875 77.253662109375 76.75049591064453125 77.12335205078125 76.73502349853515625 77.55680084228515625 78.512481689453125 79.36209869384765625 81.47431182861328125 88.303680419921875 87.2976531982421875 88.86594390869140625 90.79291534423828125 89.07459259033203125 85.97461700439453125 91.35153961181640625 95.1817169189453125 99.76262664794921875 104.69715118408203125 105.96804046630859375 99.64788818359375 97.407745361328125 89.30379486083984375 73.7198486328125 73.459075927734375 73.5398101806640625 73.5162811279296875 74.34529876708984375 75.81507110595703125 79.8671722412109375 83.0012969970703125 84.62203216552734375 89.84934234619140625 96.3526763916015625 102.70200347900390625 101.21851348876953125 99.43558502197265625 94.87940216064453125 90.58606719970703125 87.7998199462890625 86.82189178466796875 80.31795501708984375 80.65203094482421875 83.48557281494140625 86.41974639892578125 90.20691680908203125 92.4498443603515625 88.2305450439453125 85.96514892578125 80.19953155517578125 89.5096588134765625 92.54570770263671875 92.5359649658203125 86.397491455078125 88.957305908203125 86.17748260498046875 79.56072998046875 86.09358978271484375 87.7154693603515625 87.18502044677734375 93.60532379150390625 96.41532135009765625 98.36408233642578125 94.33841705322265625 90.65940093994140625 91.1042327880859375 89.906280517578125
